ply
format ascii 1.0
comment VCGLIB generated
element vertex 768
property float x
property float y
property float z
property float nx
property float ny
property float nz
element face 0
property list uchar int vertex_indices
end_header
0.1457712 0.0784435 0.2430559 4.443336e-06 -5.457499e-06 1 
0.1443812 0.09596948 0.2430557 -2.637337e-07 -2.110498e-06 1 
0.1429937 0.1134637 0.2430555 -2.663554e-06 2.751396e-06 1 
0.1416088 0.1309262 0.2430554 3.465236e-06 5.180489e-06 1 
0.1402263 0.1483572 0.2430552 2.471953e-06 -4.758163e-06 1 
0.1388466 0.1657567 0.2430557 -1.821543e-06 1.492277e-06 1 
0.137469 0.1831246 0.2430554 -5.824459e-06 -3.364716e-06 1 
0.1360943 0.2004614 0.2430558 3.688647e-06 -2.740959e-06 1 
0.1347217 0.2177668 0.2430556 5.117483e-06 1.262124e-06 1 
0.1333514 0.2350409 0.2430548 4.880359e-06 -5.089249e-06 1 
0.1319842 0.2522842 0.2430557 2.842128e-06 -1.703134e-06 1 
0.1306192 0.2694964 0.2430557 -3.47287e-08 8.760138e-06 1 
0.1292563 0.2866775 0.243055 1.339999e-06 -3.324981e-06 1 
0.1278964 0.303828 0.2430556 2.674829e-06 -5.949347e-06 1 
0.1265386 0.3209476 0.2430555 -1.790189e-06 -1.949287e-06 1 
0.1251834 0.3380366 0.2430555 -0.00633286 -0.1070193 0.9942368 
0.1630508 0.3701984 0.3402777 0.08021726 -0.3285913 0.9410595 
0.1617366 0.3867712 0.3402781 2.415672e-06 -2.770123e-06 1 
0.1604246 0.4033143 0.340278 2.161355e-06 5.340029e-06 1 
0.1591146 0.4198278 0.3402773 6.853736e-06 4.133559e-06 1 
0.1578076 0.4363119 0.3402779 3.256839e-06 -1.088374e-06 1 
0.1565027 0.4527667 0.3402781 0.009772485 0.03066471 0.999482 
0.1549783 0.4691225 0.3397315 0.02986141 0.3772145 0.9256445 
0.132661 0.4791668 0.2879652 -1.064708e-05 1 -1.757144e-07 
0.1130942 0.4904706 0.2430556 -0.003311715 0.6755903 0.7372698 
0.08575965 0.5000001 0.1791226 -2.942195e-06 1 -8.149382e-07 
0.02066912 0.5000001 0.02255305 2.064125e-07 1 -4.911366e-07 
-0.05004058 0.5 -0.1475329 5.287114e-06 1 -4.205125e-06 
-0.1271301 0.5000001 -0.3329649 0.06124723 0.9064793 -0.4177848 
0.183751 -0.1489098 0.2430565 -0.02819616 -0.1403158 0.9897053 
0.1823119 -0.1310009 0.2430554 2.244164e-06 1.886649e-06 1 
0.1808759 -0.1131245 0.2430553 3.928433e-06 -3.172092e-06 1 
0.1794425 -0.0952808 0.2430552 -1.897259e-06 1.554017e-06 1 
0.1780117 -0.07746968 0.2430551 -3.538357e-06 3.312878e-06 1 
0.1765836 -0.05969107 0.2430552 -3.975214e-06 -1.138244e-06 1 
0.1751583 -0.04194476 0.2430556 3.753703e-07 -1.887329e-06 1 
0.1737352 -0.02423102 0.2430553 6.884317e-07 2.328238e-07 1 
0.1723151 -0.006549316 0.2430557 1.478354e-06 4.265203e-07 1 
0.1708972 0.0111 0.2430553 2.13905e-06 -1.367092e-06 1 
0.1694822 0.02871744 0.2430558 6.865085e-07 4.624817e-07 1 
0.1680694 0.04630267 0.2430553 -4.362371e-07 4.705209e-06 1 
0.1666594 0.06385613 0.2430554 -2.39783e-06 1.290631e-06 1 
0.165252 0.0813778 0.2430556 -1.766169e-06 -4.38629e-06 1 
0.1638471 0.09886772 0.2430557 -2.403936e-06 -1.011601e-06 1 
0.1624446 0.1163259 0.2430554 -1.865928e-06 3.323457e-06 1 
0.1610446 0.1337525 0.2430551 -1.903144e-06 1.077919e-06 1 
0.1596473 0.1511478 0.2430552 -2.727928e-06 -5.851522e-06 1 
0.1582528 0.1685117 0.2430558 -2.138282e-06 -1.679671e-06 1 
0.1568604 0.1858443 0.2430556 -2.193096e-07 4.800273e-06 1 
0.1554708 0.2031456 0.243056 6.301712e-07 6.575242e-06 1 
0.1540833 0.2204157 0.2430556 -1.260056e-07 3.304349e-06 1 
0.1526984 0.2376548 0.2430552 -4.455351e-07 -6.969889e-06 1 
0.1513165 0.2548631 0.2430563 3.895588e-07 1.524699e-06 1 
0.1499366 0.2720404 0.2430562 -2.821002e-06 4.093969e-06 1 
0.1485588 0.2891866 0.2430549 8.99275e-07 -1.585453e-06 1 
0.1471842 0.3063025 0.2430556 8.950053e-07 -7.756908e-06 1 
0.1458118 0.3233877 0.2430557 1.51879e-07 -1.978115e-07 1 
0.144442 0.3404423 0.2430559 0.004197665 -0.1391798 0.9902583 
0.1817802 0.3725063 0.3402777 0.4247862 -0.3221461 0.846037 
0.1804517 0.3890459 0.3402781 0.5792171 -0.05193591 0.8135172 
0.1791255 0.4055558 0.340278 0.3809834 0.01853702 0.924396 
0.1778016 0.4220364 0.3402779 0.347057 -0.03312848 0.9372588 
0.1764799 0.4384875 0.3402774 0.3609058 0.02390007 0.932296 
0.1751609 0.4549095 0.3402778 0.2558364 0.04774762 0.9655402 
0.1733242 0.4711376 0.3389791 0.2308424 0.5029017 0.8329476 
0.1446509 0.4791668 0.2707081 -4.50359e-06 1 2.57702e-06 
0.1322217 0.492572 0.243056 -0.03973803 0.6840883 0.7283159 
0.09772845 0.5000001 0.1604912 5.845391e-07 1 1.042345e-06 
0.03292127 0.5000002 0.002634576 4.35596e-06 1 -2.296656e-07 
-0.03750056 0.5000002 -0.1688982 2.566153e-06 1 1.071443e-06 
0.2048088 -0.163412 0.2430557 -0.0504514 -0.657505 0.7517592 
0.2033523 -0.1455077 0.2430553 0.02587461 -0.09396844 0.9952389 
0.2018986 -0.1276361 0.2430554 0.009395274 -0.0005061229 0.9999558 
0.2004474 -0.1097973 0.2430552 0.003258283 -0.0006607456 0.9999945 
0.1989993 -0.0919906 0.2430563 0.002597014 -0.0004356794 0.9999965 
0.1975531 -0.074217 0.2430553 0.00250722 0.0003782725 0.9999968 
0.1961099 -0.05647556 0.2430551 0.0006405604 -0.0002106614 0.9999998 
0.1946694 -0.03876629 0.2430554 1.954133e-05 -1.262341e-05 1 
0.1932314 -0.02108937 0.2430552 0.004277138 0.001013717 0.9999903 
0.1917962 -0.003444463 0.2430554 0.002985343 0.0009528199 0.9999951 
0.1903635 0.01416839 0.2430556 2.041268e-07 7.419083e-07 1 
0.1889333 0.03174921 0.2430555 1.422104e-06 -5.312904e-08 1 
0.1875059 0.04929826 0.2430557 6.924026e-07 2.82671e-07 1 
0.1860808 0.06681541 0.2430553 -6.868478e-07 7.430554e-07 1 
0.1846585 0.08430092 0.2430553 -1.005271e-06 -3.614383e-06 1 
0.1832388 0.1017549 0.2430556 -3.542517e-06 -2.210494e-06 1 
0.1818217 0.1191774 0.243056 -4.657269e-06 4.460802e-06 1 
0.1804067 0.1365682 0.2430553 -4.022223e-06 -1.02364e-06 1 
0.1789947 0.1539279 0.2430554 2.91335e-06 -3.597066e-06 1 
0.1775851 0.1712563 0.2430554 2.714416e-06 1.645291e-06 1 
0.1761781 0.1885534 0.2430554 1.384645e-06 2.792091e-06 1 
0.1747735 0.2058194 0.2430552 -1.407708e-06 9.997772e-06 1 
0.1733715 0.2230546 0.2430554 -3.157379e-06 -3.330799e-06 1 
0.1719723 0.2402588 0.2430559 -2.282709e-06 -6.857358e-06 1 
0.1705752 0.2574321 0.2430558 -1.999871e-06 2.233235e-06 1 
0.1691805 0.2745745 0.2430551 -2.853646e-07 4.810779e-06 1 
0.1677888 0.2916864 0.2430556 -8.380746e-07 -1.485374e-06 1 
0.1663994 0.3087677 0.2430558 8.958739e-07 -5.033288e-06 1 
0.1650125 0.3258185 0.2430561 2.098042e-06 -2.371929e-06 1 
0.1636275 0.3428386 0.243055 0.04182593 -0.1088793 0.9931747 
0.1874998 0.3697316 0.3073404 0.9672597 -0.2537797 0.00214734 
0.1875 0.3869065 0.3107873 1 -3.548108e-06 2.658507e-06 
0.1874998 0.4040176 0.3142205 1 -1.602339e-06 4.080604e-06 
0.1874999 0.4210657 0.3176416 1 -2.335882e-06 1.867009e-06 
0.1874999 0.4380506 0.3210497 0.9949841 0.01677581 0.09861624 
0.1875 0.4549733 0.3244458 0.9898831 0.0002727357 0.1418856 
0.1875001 0.4718336 0.3278294 0.7212432 0.6290961 0.2899077 
0.1567109 0.4791668 0.2533492 0.02512146 0.9528334 0.3024526 
0.1512776 0.4946655 0.2430562 -0.001750251 0.6533199 0.75708 
0.1097728 0.5000001 0.1417413 -3.270173e-06 1 4.416346e-06 
0.04525271 0.5000001 -0.01741907 -3.910448e-07 1 3.023115e-06 
-0.02487457 0.5000002 -0.1904113 -5.031252e-06 1 -1.227083e-06 
0.2241477 -0.160145 0.242517 0.0840483 -0.4877889 0.8689062 
0.2227408 -0.1422253 0.2426892 0.1157572 -0.01015013 0.9932258 
0.2213117 -0.1243591 0.242795 0.1025959 0.005321105 0.9947089 
0.2198851 -0.1065266 0.2429001 0.07894453 0.002999511 0.9968745 
0.2184509 -0.08873514 0.2429778 0.08524274 -0.0005978181 0.9963601 
0.2170034 -0.07098843 0.2430128 0.07680828 -0.004238984 0.9970369 
0.2155588 -0.0532741 0.2430487 0.05561792 0.0006463509 0.9984519 
0.2141058 -0.03560001 0.2430552 0.1417543 0.0850006 0.9862457 
0.2126531 -0.01795965 0.2430556 0.2355929 0.0571788 0.9701683 
0.2112027 -0.0003515262 0.243055 0.3387763 0.02673451 0.9404871 
0.2097552 0.01722489 0.2430552 0.2443054 0.02151245 0.9694597 
0.2083103 0.03476945 0.2430553 0.2627099 -0.01527498 0.9647539 
0.2068682 0.0522824 0.2430559 0.1902338 -0.01871482 0.9815604 
0.2054283 0.06976345 0.2430556 0.1557825 -0.009710536 0.9877437 
0.2039913 0.08721305 0.2430557 0.1688433 0.02389405 0.9853533 
0.2025565 0.104631 0.2430552 0.1204478 0.002846867 0.9927156 
0.2011249 0.122018 0.243056 0.1170024 0.005637993 0.9931157 
0.1996954 0.1393732 0.2430556 0.05884747 -0.01589234 0.9981405 
0.1982686 0.1566974 0.2430556 0.08627073 -0.005007353 0.9962592 
0.1968443 0.1739904 0.2430555 0.04456802 -0.001940642 0.9990045 
0.1954229 0.1912525 0.2430561 0.0360147 -0.0007761903 0.999351 
0.1940036 0.2084834 0.2430558 0.01622671 0.006073978 0.9998499 
0.1925869 0.2256835 0.2430553 0.01560976 -0.001196513 0.9998775 
0.191173 0.2428529 0.2430557 0.003600106 -0.0005146913 0.9999934 
0.1897614 0.2599914 0.2430556 0.000578452 -0.0001341403 0.9999999 
0.1883525 0.2770993 0.2430558 -7.577017e-07 2.828874e-06 1 
0.1869461 0.2941768 0.2430558 7.37981e-07 -4.922367e-08 1 
0.1855422 0.3112237 0.2430559 2.357411e-06 -3.720459e-06 1 
0.1841406 0.3282401 0.2430557 3.218345e-06 -1.308392e-06 1 
0.1827418 0.3452264 0.2430561 0.01448293 -0.1222497 0.9923937 
0.1874998 0.3646181 0.2589347 0.8497791 -0.4034963 0.3392139 
0.1874999 0.3820021 0.2625121 0.9885402 -0.0173808 0.1499542 
0.1875001 0.3993211 0.2660766 0.9929818 0.01020323 0.117827 
0.1875 0.4165752 0.2696267 0.9985676 -0.003767661 0.05337118 
0.1875 0.433765 0.273164 1 8.980926e-07 -1.463763e-06 
0.1874999 0.4508907 0.2766879 1 -8.348861e-07 1.54566e-07 
0.1874999 0.4679528 0.2801989 0.9482706 0.3169732 0.01763435 
0.1716389 0.480034 0.2430553 0.1035781 0.6476617 0.754855 
0.1702624 0.496751 0.2430561 0.03856234 0.6555046 0.754206 
0.121894 0.5000003 0.1228732 2.395309e-06 1 -2.122099e-06 
0.05766675 0.5000001 -0.03760298 -8.959502e-08 1 -3.835734e-06 
-0.01216168 0.5000002 -0.2120738 -2.812187e-06 1 1.040251e-06 
0.2420185 -0.158008 0.2382024 0.315596 -0.3716469 0.8730852 
0.2407109 -0.140013 0.2386899 0.3493759 0.005855857 0.9369643 
0.2393876 -0.1220698 0.2391268 0.3211618 -0.003189343 0.947019 
0.2380671 -0.1041636 0.2395628 0.2952883 -0.001818867 0.9554065 
0.2367368 -0.08630349 0.2399645 0.2946417 0.009176542 0.9555638 
0.2353979 -0.06848802 0.2403348 0.2736956 0.008262431 0.9617809 
0.2340617 -0.05070848 0.2407045 0.2427295 0.01748402 0.9699364 
0.2327083 -0.03297877 0.2410201 0.3269995 0.2716541 0.9051384 
0.2274513 -0.01797147 0.2308814 0.5786539 0.297997 0.7591822 
0.2263817 -7.09277e-05 0.2319514 0.6498476 0.01314195 0.759951 
0.2253146 0.01778667 0.2330184 0.6169492 0.02085039 0.7867268 
0.2242498 0.03560148 0.2340825 0.621578 -0.01013335 0.7832868 
0.223188 0.05337402 0.2351451 0.5944902 -0.009834019 0.8040427 
0.2221285 0.07110404 0.2362046 0.5720923 -0.01642171 0.8200248 
0.2210715 0.08879184 0.2372618 0.5437731 0.02867356 0.8387423 
0.220017 0.1064375 0.2383162 0.4974094 0.01924092 0.8673025 
0.2189652 0.1240414 0.2393684 0.4896107 0.0268207 0.8715286 
0.2179155 0.1416033 0.2404175 0.444365 0.01236639 0.8957605 
0.2168687 0.1591238 0.2414649 0.4482712 -0.01281648 0.8938057 
0.215824 0.1766025 0.2425089 0.3849193 -0.00518264 0.9229357 
0.2145946 0.1939413 0.2430559 0.3458727 -0.0006339652 0.9382812 
0.2131608 0.2111372 0.2430554 0.3759957 0.04615654 0.9254711 
0.21173 0.2283026 0.2430561 0.3050172 -0.0006718231 0.9523466 
0.2103014 0.2454372 0.2430558 0.2806289 0.03236016 0.9592707 
0.2088755 0.2625412 0.2430558 0.2704905 0.008176771 0.9626879 
0.2074521 0.2796146 0.2430557 0.2309851 -0.006976219 0.9729323 
0.2060312 0.2966576 0.2430556 0.2378428 0.03453786 0.9706895 
0.2046127 0.3136702 0.2430551 0.1899848 0.01229283 0.9817101 
0.2031972 0.3306527 0.2430558 0.1538607 -0.007172463 0.9880666 
0.2017836 0.3476048 0.2430551 0.1476691 -0.05991668 0.9872203 
0.2003732 0.364527 0.243056 0.2932604 -0.07962563 0.9527109 
0.1989647 0.3814189 0.2430554 0.2987708 0.0008426979 0.9543246 
0.1975589 0.398281 0.2430553 0.458654 -0.04071306 0.8876818 
0.1961557 0.4151133 0.2430554 0.5004594 0.01817157 0.8655693 
0.194755 0.4319157 0.2430557 0.3908589 -0.0109418 0.9203857 
0.1933567 0.4486884 0.2430557 0.4281385 0.02008037 0.90349 
0.1919607 0.4654314 0.2430554 0.4941318 0.06278718 0.8671168 
0.1905673 0.4821449 0.2430554 0.3211607 0.447846 0.8344398 
0.1891764 0.4988289 0.2430555 0.02657584 0.7253556 0.6878612 
0.1340908 0.4999999 0.1038804 -3.62124e-06 1 1.9726e-06 
0.07016272 0.5000001 -0.05792212 3.819236e-07 1 -4.030875e-06 
0.0006396092 0.5000002 -0.2338857 -2.610319e-06 1 -3.816993e-06 
0.2583459 -0.1571002 0.2297393 0.4903519 -0.3906169 0.7790851 
0.2571356 -0.1390078 0.2305501 0.5578239 0.001569799 0.8299579 
0.2559146 -0.1209668 0.2313226 0.5366464 -0.005134453 0.8437916 
0.2546968 -0.1029659 0.2320943 0.5225845 0.0001354329 0.8525875 
0.2534598 -0.08502158 0.2328049 0.4963325 -0.00127621 0.8681316 
0.2522225 -0.06711909 0.2335054 0.4683124 0.002902442 0.8835582 
0.2509824 -0.04925992 0.2341893 0.4703724 0.04241433 0.8814482 
0.2497264 -0.0314529 0.2348214 0.4005657 0.437144 0.8052654 
0.2415838 -0.01847584 0.21675 0.7036301 0.4346021 0.5621617 
0.2404948 -0.0005399541 0.2178379 0.707108 -4.014e-06 0.7071057 
0.2394087 0.01735318 0.2189243 0.7071086 2.626329e-06 0.707105 
0.2383251 0.03520335 0.2200077 0.7071064 2.860677e-06 0.7071073 
0.2372442 0.05301089 0.2210887 0.7071093 -8.774018e-06 0.7071044 
0.2361659 0.07077587 0.2221672 0.7071061 -9.168871e-07 0.7071075 
0.2350901 0.08849844 0.223243 0.707106 4.686764e-06 0.7071076 
0.2340168 0.1061787 0.224316 0.7071063 -9.220093e-07 0.7071074 
0.2329464 0.1238172 0.2253876 0.7071093 2.019282e-06 0.7071043 
0.231878 0.1414133 0.2264549 0.7037674 0.001766074 0.7104283 
0.2308125 0.1589678 0.2275208 0.6888077 -0.005601819 0.7249226 
0.2297496 0.1764808 0.2285842 0.7015525 0.001105693 0.712617 
0.2286887 0.1939519 0.2296439 0.6958863 0.001854274 0.7181497 
0.227631 0.2113821 0.2307028 0.6863065 -0.001466533 0.7273111 
0.2265753 0.2287708 0.231758 0.6698369 0.01405467 0.7423753 
0.225522 0.2461184 0.2328102 0.6312886 0.00612096 0.7755238 
0.2244717 0.2634254 0.2338616 0.6587374 -0.008234801 0.7523279 
0.2234236 0.2806915 0.2349096 0.6216754 0.01337092 0.7831609 
0.222378 0.297917 0.2359553 0.6028318 0.01473027 0.7977324 
0.2213349 0.3151019 0.2369984 0.5641437 0.01272159 0.8255786 
0.2202939 0.3322464 0.2380386 0.5172636 0.01853144 0.8556255 
0.2192559 0.349351 0.2390774 0.3953694 -0.1162819 0.9111321 
0.2192876 0.3668459 0.2429439 0.1622926 -0.1090644 0.9806968 
0.2178833 0.3837119 0.2429919 0.08396293 -0.005282132 0.996455 
0.2164764 0.4005457 0.2430263 0.07978229 -0.006846997 0.9967889 
0.2150702 0.4173488 0.243056 0.05801235 -0.001872906 0.9983141 
0.2136554 0.434118 0.2430563 0.05099671 0.001271263 0.998698 
0.2122426 0.4508573 0.2430553 0.06037902 -0.004984193 0.9981631 
0.2108328 0.4675673 0.2430554 0.03510136 -0.003972143 0.9993759 
0.2094255 0.4842479 0.2430557 -0.002404521 0.2686444 0.9632365 
0.205055 0.5000002 0.235257 0.03197782 0.9110286 0.4111015 
0.1463677 0.5000002 0.08477187 4.894468e-06 1 9.742216e-07 
0.08274305 0.5000002 -0.07837382 -2.737858e-06 1 3.0142e-06 
0.01352955 0.5000001 -0.2558503 3.068581e-07 1 -1.900278e-06 
0.2730213 -0.1575531 0.2166413 0.6957054 -0.3995054 0.5969836 
0.271944 -0.1393083 0.2178895 0.7476532 -0.001614366 0.6640874 
0.2708408 -0.1211315 0.2190554 0.7323226 0.007811082 0.680913 
0.2697386 -0.1030007 0.2202134 0.7227088 -0.01130496 0.6910604 
0.2686217 -0.08492722 0.2213208 0.7019333 -0.008144659 0.7121962 
0.2674958 -0.06690621 0.2223928 0.6907307 -0.006986344 0.7230785 
0.2663674 -0.04893199 0.2234484 0.6803036 0.05198815 0.7310845 
0.2652192 -0.03101681 0.2244391 0.5551628 0.5512295 0.6228486 
0.2557712 -0.01898258 0.2025616 0.6631907 0.4058305 0.6288719 
0.2546632 -0.001010784 0.2036693 0.7071037 -3.113819e-06 0.7071099 
0.2535581 0.01691798 0.2047751 0.7071054 -7.213094e-07 0.7071082 
0.2524555 0.03480365 0.2058778 0.7071038 3.242865e-06 0.7071098 
0.2513554 0.05264637 0.2069776 0.7071065 -4.072034e-06 0.7071071 
0.250258 0.07044642 0.208075 0.7071117 -3.221445e-06 0.7071018 
0.2491635 0.08820403 0.2091702 0.7071135 3.781636e-06 0.7071001 
0.2480714 0.1059191 0.2102623 0.7071058 -2.524407e-06 0.7071078 
0.246982 0.123592 0.2113522 0.7071067 1.747394e-07 0.7071068 
0.2458949 0.1412226 0.2124386 0.7071074 5.940674e-07 0.7071062 
0.2448106 0.1588114 0.2135231 0.7071068 -3.553927e-06 0.7071068 
0.2437288 0.1763583 0.2146048 0.7071068 1.168111e-06 0.7071068 
0.2426494 0.1938635 0.2156833 0.7071062 1.582317e-06 0.7071074 
0.2415728 0.2113273 0.2167601 0.707109 4.265457e-07 0.7071046 
0.2404988 0.2287498 0.2178343 0.7071071 3.087567e-06 0.7071066 
0.2394273 0.246131 0.2189061 0.7071064 -2.962304e-06 0.7071073 
0.2383583 0.2634712 0.2199752 0.7071072 -1.957655e-06 0.7071064 
0.2372917 0.2807703 0.2210414 0.7071038 2.508983e-06 0.7071098 
0.2362277 0.2980288 0.2221053 0.7071028 7.783527e-07 0.7071108 
0.2351662 0.3152465 0.2231666 0.7071072 -1.899898e-07 0.7071064 
0.2341074 0.3324239 0.2242259 0.7071083 -5.21075e-06 0.7071053 
0.233051 0.3495609 0.2252828 0.6864063 -0.2509027 0.6825646 
0.2370351 0.3687093 0.2398814 0.3328066 -0.3399937 0.8795705 
0.2357318 0.3856019 0.2402426 0.2772085 -0.004338928 0.9608001 
0.234431 0.4024613 0.2406024 0.2466542 0.001490281 0.9691024 
0.2331199 0.4192829 0.2409276 0.2452029 -0.0002153628 0.9694718 
0.2318009 0.4360681 0.2412241 0.2323162 0.004330874 0.9726307 
0.2304844 0.452821 0.2415197 0.2095702 -0.0058701 0.977776 
0.2291524 0.4695358 0.2417666 0.1908443 -0.008163203 0.9815864 
0.2278173 0.486217 0.2419983 0.1452347 0.2778389 0.9495854 
0.2171094 0.5000001 0.2172352 -1.96704e-06 1 -3.644773e-06 
0.1587226 0.5000002 0.06553873 -1.835748e-06 1 4.199963e-06 
0.0954061 0.5000001 -0.09896576 4.440665e-06 1 -7.116068e-08 
0.02650984 0.5000002 -0.2779671 4.012573e-06 1 3.20658e-06 
0.2854071 -0.1599419 0.196903 0.829396 -0.4537612 0.3258882 
0.2845464 -0.1414394 0.1988447 0.9011526 0.00348933 0.433488 
0.283652 -0.1230187 0.2006791 0.8926663 0.002640488 0.4507104 
0.2827481 -0.104659 0.2024745 0.8796589 0.003627557 0.4755913 
0.281808 -0.08638009 0.2041566 0.8683736 -0.01278165 0.4957459 
0.2808657 -0.0681546 0.2058202 0.8550966 -0.006694755 0.5184255 
0.2798887 -0.05000585 0.2073755 0.8327692 0.0596885 0.5503933 
0.2789114 -0.03190735 0.2089183 0.7084256 0.5296882 0.4664372 
0.2700149 -0.01949098 0.1883187 0.6650475 0.3906656 0.6364686 
0.2688875 -0.001483272 0.1894458 0.7071066 -2.377667e-06 0.707107 
0.267763 0.01648115 0.1905705 0.7071095 -4.136004e-06 0.7071041 
0.2666412 0.0344024 0.1916927 0.7071087 -2.054032e-06 0.7071049 
0.2655221 0.05228058 0.1928118 0.707104 2.353685e-06 0.7071096 
0.2644054 0.07011577 0.193928 0.707105 5.392358e-06 0.7071084 
0.2632915 0.08790825 0.1950416 0.7071024 -2.52598e-06 0.7071112 
0.2621802 0.1056581 0.1961523 0.7071034 -2.225862e-07 0.7071103 
0.2610719 0.1233658 0.1972614 0.7071074 4.223548e-07 0.7071062 
0.2599661 0.1410311 0.1983674 0.7071099 2.990884e-06 0.7071037 
0.2588629 0.1586543 0.1994707 0.7071107 -2.188609e-06 0.7071029 
0.2577623 0.1762355 0.2005713 0.7071054 -1.288339e-06 0.7071083 
0.2566643 0.1937748 0.2016691 0.7071059 3.123656e-06 0.7071077 
0.2555691 0.2112726 0.202765 0.7071021 -1.385808e-06 0.7071114 
0.2544762 0.2287287 0.2038574 0.7071072 4.738569e-06 0.7071065 
0.2533859 0.2461435 0.2049472 0.7071032 -2.235175e-08 0.7071103 
0.2522984 0.263517 0.2060349 0.7071077 -5.580543e-06 0.7071059 
0.2512135 0.2808496 0.2071202 0.7071069 -3.042806e-07 0.7071066 
0.2501309 0.2981411 0.2082024 0.7071075 3.622845e-07 0.7071062 
0.2490509 0.3153918 0.209282 0.7071041 -8.456847e-07 0.7071094 
0.2479737 0.332602 0.2103597 0.7071055 -3.106892e-06 0.7071081 
0.2468989 0.3497716 0.2114346 0.6441938 -0.3409269 0.6846775 
0.2533041 0.3699759 0.2328936 0.4734638 -0.2831435 0.8340635 
0.2520998 0.386914 0.2335749 0.4892242 -0.006683933 0.8721325 
0.2508909 0.4038131 0.2342352 0.4570404 0.007633397 0.8894132 
0.2496687 0.4206705 0.2348509 0.4527993 0.001308466 0.8916116 
0.2484487 0.4374923 0.2354645 0.4379512 0.02724205 0.898586 
0.247218 0.4542744 0.2360408 0.4207229 -0.0003364126 0.9071892 
0.2459801 0.4710185 0.2365894 0.40115 -0.005269836 0.9159972 
0.2447446 0.487728 0.2371366 0.300141 0.416153 0.858331 
0.229239 0.5000002 0.1991036 -0.05315602 0.9930376 -0.1051234 
0.1711566 0.5000002 0.04618094 -5.372536e-06 1 -2.410146e-06 
0.1081546 0.5000001 -0.1196943 -7.151018e-06 1 3.910754e-07 
0.03958094 0.5000002 -0.300239 -1.789573e-06 1 1.637891e-06 
0.2916669 -0.1481594 0.1637589 0.9959127 -0.07497459 0.0503665 
0.2916304 -0.1288832 0.1681555 0.9979936 -0.004267014 0.06317099 
0.2914491 -0.109802 0.1721205 0.9947216 0.006968805 0.1023745 
0.291116 -0.09091454 0.1756352 0.9886457 -0.001982285 0.1502523 
0.2906748 -0.07218023 0.1788257 0.9828521 -0.0007333752 0.1843941 
0.2901531 -0.05357316 0.181772 0.9849492 0.008032613 0.1726577 
0.2895484 -0.03509141 0.1844673 0.9359748 0.2416755 0.256016 
0.2843142 -0.02000168 0.1740185 0.8989994 0.20384 0.38762 
0.2831674 -0.001957936 0.1751651 0.8191502 -0.01488905 0.5733858 
0.2820234 0.01604236 0.1763092 0.8000091 -0.002273867 0.5999835 
0.280882 0.03399914 0.1774499 0.7601266 -0.009808814 0.6497011 
0.2797438 0.05191307 0.1785894 0.7514126 -0.003166178 0.659825 
0.2786081 0.06978378 0.1797255 0.7171426 -0.002305888 0.6969226 
0.2774751 0.08761152 0.1808585 0.7198759 -0.001360555 0.6941015 
0.2763446 0.1053964 0.1819885 0.7086327 -0.0008081318 0.7055771 
0.275217 0.1231388 0.183116 0.7071047 1.754612e-06 0.7071089 
0.2740923 0.140839 0.1842416 0.7071048 2.089655e-06 0.7071088 
0.2729698 0.1584965 0.1853633 0.7071074 -7.702038e-07 0.7071062 
0.2718503 0.1761121 0.186483 0.7071131 -3.018416e-06 0.7071004 
0.2707334 0.1936856 0.1875997 0.7071064 -2.362649e-06 0.7071072 
0.2696193 0.2112175 0.1887142 0.7071066 7.636844e-08 0.707107 
0.2685076 0.2287075 0.1898257 0.7071067 -5.587936e-08 0.7071068 
0.2673988 0.2461561 0.1909348 0.7071071 -1.092441e-06 0.7071065 
0.2662925 0.2635632 0.1920413 0.7071048 9.458598e-07 0.7071089 
0.2651888 0.280929 0.1931449 0.707108 1.043081e-06 0.7071056 
0.2640875 0.2982538 0.1942455 0.7071065 -9.46806e-07 0.7071071 
0.2629891 0.3155376 0.1953441 0.7071056 -4.31668e-06 0.7071081 
0.2618934 0.3327807 0.1964406 0.7071047 -2.673827e-06 0.7071089 
0.2608 0.3499831 0.1975336 0.6551943 -0.4926268 0.5727472 
0.2680976 0.370629 0.22182 0.6566208 -0.1911015 0.7296091 
0.2670021 0.3876369 0.2228621 0.6730224 -0.01667213 0.7394341 
0.2658932 0.404599 0.2238579 0.6805542 0.006064457 0.7326727 
0.2647758 0.4215179 0.2248208 0.6515567 -0.007925426 0.7585585 
0.2636598 0.4383978 0.2257781 0.6227487 0.007607042 0.782385 
0.2625217 0.4552307 0.2266659 0.6199467 0.01143089 0.7845606 
0.2613865 0.4720258 0.2275523 0.6179951 -0.004321816 0.7861701 
0.2602418 0.4887797 0.228404 0.5570345 0.3197952 0.7664487 
0.2414434 0.5000001 0.1808584 -0.1943606 0.977499 -0.081974 
0.1836712 0.5000002 0.02669903 2.394549e-05 1 -1.79623e-05 
0.120989 0.5000001 -0.1405623 -1.132504e-07 1 -4.500766e-06 
0.05274406 0.5000002 -0.3226671 0.001469971 0.996492 -0.08367628 
0.2916668 -0.1609975 0.1071427 0.9026747 -0.4298794 0.01954823 
0.2916667 -0.1414082 0.1118243 1 1.620266e-08 -5.702919e-07 
0.2916667 -0.1219025 0.1164865 1 3.088419e-07 1.998913e-06 
0.2916664 -0.1024802 0.1211278 1 4.814352e-06 6.153101e-07 
0.2916666 -0.08314025 0.1257507 1 -8.152227e-06 -4.229249e-06 
0.2916669 -0.06388234 0.1303544 1 2.75946e-07 -1.407021e-06 
0.2916667 -0.04470649 0.1349369 1 -2.834284e-06 -2.089625e-06 
0.2916668 -0.02561144 0.1395013 1 2.828953e-06 2.646914e-07 
0.2916666 -0.006597277 0.1440453 1 4.248478e-06 -2.617797e-06 
0.2916666 0.01233699 0.1485709 0.9999288 0.0008045961 0.01190861 
0.2916664 0.03119151 0.1530768 0.9987677 -0.002530518 0.04956454 
0.2916665 0.04996715 0.1575646 0.9857523 0.0342976 0.16467 
0.2916667 0.06866424 0.1620337 0.9514824 -0.03583625 0.3056094 
0.2916665 0.08728302 0.1664834 0.9152863 0.008344785 0.4027174 
0.2905643 0.1051336 0.1677687 0.9178569 0.02295778 0.3962471 
0.2894177 0.1229112 0.1689164 0.9024452 0.03311496 0.42953 
0.2882735 0.1406459 0.1700602 0.8742373 -0.00197022 0.485495 
0.287132 0.1583383 0.1712015 0.8646319 -0.02204685 0.501922 
0.2859933 0.1759883 0.17234 0.8435899 -0.02972622 0.5361645 
0.2848573 0.1935962 0.1734759 0.7940319 0.01011506 0.607792 
0.2837243 0.2111622 0.1746098 0.7821053 -0.01767987 0.6228955 
0.2825934 0.2286861 0.1757394 0.752784 -0.01534909 0.6580887 
0.2814656 0.2461685 0.1768672 0.7403187 -0.0004244972 0.6722559 
0.2803404 0.2636093 0.1779924 0.7557303 -0.0003133798 0.6548829 
0.2792181 0.2810088 0.1791154 0.7378571 0.003602521 0.6749474 
0.2780982 0.298367 0.180235 0.7185929 -0.003103049 0.6954241 
0.2769811 0.315684 0.1813524 0.7133319 -0.00154364 0.7008247 
0.2758664 0.3329601 0.1824667 0.7079481 0.0006398844 0.7062641 
0.2747545 0.3501953 0.1835786 0.7099098 -0.3957519 0.5825878 
0.2810577 0.3704999 0.2054806 0.846689 -0.1482926 0.5110059 
0.2801139 0.3876211 0.2070199 0.8332798 -0.0005333297 0.5528513 
0.2791614 0.4046935 0.208524 0.8409038 0.008916538 0.5411112 
0.2781895 0.4217138 0.209963 0.830346 0.003248522 0.5572388 
0.277206 0.4386857 0.2113594 0.8133634 0.00500093 0.5817344 
0.2762113 0.4556102 0.212714 0.8010858 0.002946382 0.5985423 
0.2751991 0.4724858 0.2140098 0.7911745 -0.00363202 0.6115798 
0.2741855 0.4893187 0.2152915 0.7290845 0.4117252 0.5467342 
0.2537235 0.5000001 0.1624991 -0.1163675 0.9928247 -0.02752772 
0.1962668 0.5000002 0.007090696 4.569075e-06 1 8.08074e-06 
0.1339105 0.5000002 -0.1615698 1.411514e-06 1 2.017046e-07 
0.2916669 -0.1543001 0.05387207 0.9739998 -0.2218679 -0.04581551 
0.291667 -0.1345046 0.05872247 1 9.224565e-07 3.106203e-06 
0.2916666 -0.114795 0.06355061 1 3.528259e-06 2.43443e-06 
0.2916668 -0.09517007 0.06835942 1 -6.779866e-07 8.463719e-07 
0.2916668 -0.07562972 0.07314709 1 -1.490759e-06 3.92571e-06 
0.2916667 -0.05617337 0.07791394 1 4.983794e-06 1.249851e-06 
0.2916666 -0.03680041 0.0826603 1 -2.704196e-06 -3.337712e-06 
0.2916665 -0.01751026 0.08738656 1 3.797771e-06 -1.02708e-06 
0.2916665 0.001697554 0.09209258 1 -2.246702e-06 -5.927246e-06 
0.2916668 0.02082382 0.09677961 1 -3.445583e-07 -8.621713e-07 
0.2916667 0.03986858 0.1014458 1 4.088113e-06 -3.430483e-06 
0.2916668 0.05883263 0.1060924 1 -2.370426e-06 -5.851468e-07 
0.2916667 0.07771631 0.1107188 1 3.591911e-06 6.37427e-06 
0.2916668 0.09652039 0.1153263 1 -3.195645e-06 -7.222665e-07 
0.2916665 0.1152451 0.1199135 1 2.445221e-07 -3.41968e-06 
0.2916667 0.1338912 0.1244825 1 4.380459e-08 -2.028782e-06 
0.2916665 0.1524589 0.1290314 1 -9.639208e-07 -4.624462e-07 
0.2916667 0.1709491 0.1335624 1 -4.470071e-06 4.038613e-07 
0.2916667 0.1893618 0.1380736 1 7.749807e-07 -4.0441e-06 
0.2916667 0.2076979 0.1425662 1 3.790913e-06 -8.864261e-07 
0.2916669 0.2259577 0.1470406 0.9999932 0.0006648568 0.003638742 
0.2916666 0.2441415 0.1514952 0.9986386 0.01024349 0.05114682 
0.2916666 0.26225 0.155932 0.9929912 -0.009184245 0.117831 
0.2916667 0.2802837 0.1603507 0.9644502 -0.005384863 0.26421 
0.2916667 0.298243 0.1647512 0.9457209 -0.01353 0.3246982 
0.291027 0.3158309 0.1673062 0.8991407 -0.0006414521 0.4376591 
0.2898937 0.3331402 0.1684397 0.9068063 0.01531919 0.4212692 
0.288763 0.3504086 0.1695703 0.9214945 -0.1845586 0.3417397 
0.2906141 0.3688987 0.1791764 0.9746746 -0.1256601 0.1849837 
0.2900971 0.3862948 0.1820211 0.9800001 0.003299063 0.1989697 
0.2895078 0.4036044 0.1846464 0.9759603 0.003487201 0.2179203 
0.2888607 0.4208363 0.187094 0.9654306 0.01142239 0.2604101 
0.2881807 0.4380023 0.1894353 0.9603792 0.005445796 0.2786436 
0.2874548 0.4550995 0.1916339 0.9445078 -0.007061232 0.3284132 
0.2866932 0.4721335 0.193719 0.9381815 -0.00784758 0.346055 
0.2859134 0.4891118 0.1957409 0.8695064 0.3165099 0.3791837 
0.2660808 0.5000001 0.1440268 2.845557e-06 1 -2.084043e-06 
0.2089438 0.5000001 -0.01264581 4.167299e-06 1 -4.212285e-06 
0.1469186 0.5000002 -0.1827222 -5.158734e-06 1 1.363514e-07 
0.2916667 -0.1474501 -0.0006151083 0.9957002 -0.08747213 0.03049187 
0.2916669 -0.1274441 0.004410401 1 -1.108338e-06 -1.381161e-06 
0.2916667 -0.107526 0.009412554 1 -8.194941e-07 -7.227898e-06 
0.2916667 -0.08769463 0.01439345 1 3.373122e-06 -1.231258e-06 
0.2916666 -0.06794961 0.01935255 1 1.065938e-06 4.524708e-06 
0.2916664 -0.04829045 0.02428975 1 2.178389e-06 4.570102e-06 
0.2916665 -0.02871631 0.02920626 1 -1.01652e-07 -1.797595e-06 
0.2916667 -0.009226703 0.034102 1 -6.04532e-06 -9.09063e-07 
0.2916666 0.01017853 0.03897556 1 0 0 
0.2916668 0.02950041 0.04382903 1 1.865744e-07 -1.717076e-06 
0.2916667 0.04873911 0.04866101 1 5.237835e-07 1.218359e-06 
0.2916665 0.06789524 0.0534718 1 7.35041e-07 -4.343686e-06 
0.2916666 0.08696952 0.0582627 1 2.03824e-06 -4.353372e-06 
0.2916663 0.1059622 0.06303225 1 7.823281e-06 9.749054e-07 
0.2916666 0.1248743 0.06778301 1 -4.309806e-06 -8.225725e-07 
0.2916667 0.1437059 0.07251313 1 -5.462285e-06 2.070976e-06 
0.2916665 0.1624574 0.07722251 1 3.956611e-07 2.307546e-06 
0.2916666 0.1811297 0.08191238 1 3.138136e-06 -6.527293e-07 
0.2916665 0.199723 0.08658226 1 2.363398e-06 3.865945e-06 
0.2916666 0.2182381 0.09123289 1 -5.000719e-06 4.374369e-06 
0.2916665 0.2366752 0.09586329 1 -1.527435e-06 5.892957e-06 
0.2916668 0.2550351 0.1004756 1 -2.950308e-06 1.558722e-06 
0.2916667 0.2733178 0.1050671 1 2.211477e-06 1.894806e-06 
0.2916665 0.2915241 0.1096395 1 1.16658e-06 3.629316e-06 
0.2916666 0.3096546 0.1141935 1 -1.914296e-06 1.325474e-06 
0.2916666 0.3277095 0.1187283 1 1.081979e-06 2.084204e-06 
0.2916667 0.3456895 0.1232445 1 4.889544e-06 2.582741e-07 
0.2916665 0.3635948 0.127741 1 -3.225736e-06 -1.990851e-06 
0.2916667 0.3814262 0.1322202 1 -6.345306e-06 2.667175e-06 
0.2916668 0.399184 0.1366809 1 3.98868e-06 3.910503e-06 
0.2916665 0.4168684 0.1411215 1 2.824176e-06 6.965034e-07 
0.2916664 0.4344803 0.1455449 1 -3.069259e-05 0.0002713992 
0.2916666 0.45202 0.1499508 0.9999996 -0.0001926251 0.0008290189 
0.2916665 0.4694877 0.1543378 0.9999651 -0.0004232642 0.008354928 
0.2916666 0.4868841 0.1587075 0.9521505 0.3034546 0.03639707 
0.2785152 0.5000001 0.125438 0.2092139 0.9776312 -0.02160395 
0.2217044 0.5000001 -0.03250873 2.946842e-06 1 4.120331e-06 
0.1600156 0.5000001 -0.2040173 1.441977e-06 1 3.08506e-06 
0.2916667 -0.1607523 -0.06158814 0.9155691 -0.4018638 0.01545037 
0.2916669 -0.1404416 -0.05635819 1 -2.34119e-07 4.586266e-07 
0.2916666 -0.1202212 -0.05115302 1 0 0 
0.2916667 -0.10009 -0.04596963 1 2.425746e-06 1.308734e-06 
0.2916668 -0.08004759 -0.04080902 1 -6.489868e-06 -2.153277e-06 
0.2916669 -0.06009346 -0.03567128 1 2.225639e-06 2.69909e-07 
0.2916665 -0.04022731 -0.0305574 1 3.081685e-06 5.591364e-06 
0.2916667 -0.02044787 -0.0254644 1 -3.789123e-06 1.368382e-07 
0.2916664 -0.0007552584 -0.02039502 1 4.527902e-06 -3.098512e-08 
0.2916666 0.01885175 -0.01534627 1 -2.355976e-07 -2.270763e-06 
0.2916665 0.03837315 -0.01032047 1 -3.317021e-07 4.299075e-07 
0.2916666 0.05780985 -0.005315928 1 1.560562e-07 -2.393984e-06 
0.2916665 0.07716215 -0.0003336323 1 -4.642072e-06 3.754867e-06 
0.2916668 0.09643105 0.004628526 1 6.239295e-06 1.430679e-06 
0.2916667 0.1156164 0.009567789 1 1.672534e-06 1.968533e-06 
0.2916665 0.1347191 0.01448539 1 -5.439138e-06 5.436073e-06 
0.2916667 0.1537398 0.01938303 1 -4.120688e-06 2.198439e-06 
0.2916668 0.172679 0.02425971 1 3.403426e-06 -3.08533e-06 
0.2916667 0.191537 0.0291149 1 -3.309392e-07 -5.252609e-06 
0.2916667 0.2103145 0.03394937 1 2.581812e-06 -3.772769e-06 
0.2916664 0.2290117 0.03876264 1 6.726771e-08 -3.830051e-06 
0.2916665 0.2476297 0.04355631 1 -2.305633e-07 -5.5503e-06 
0.2916665 0.2661686 0.0483295 1 -3.136496e-06 -5.739069e-06 
0.2916666 0.284629 0.05308249 1 6.509874e-06 -1.830375e-07 
0.2916665 0.3030113 0.05781522 1 -2.887352e-06 -5.775069e-06 
0.2916665 0.3213162 0.06252804 1 -1.369137e-06 -3.898218e-06 
0.2916665 0.339544 0.06722133 1 2.406066e-06 3.240238e-07 
0.2916667 0.3576953 0.07189498 1 2.295446e-06 1.165519e-06 
0.2916664 0.3757704 0.076548 1 -3.321273e-07 1.622423e-06 
0.2916665 0.3937699 0.08118256 1 -2.676641e-07 -2.149333e-07 
0.2916667 0.4116946 0.0857981 1 -1.575401e-06 -2.537286e-06 
0.2916668 0.4295444 0.09039412 1 -4.557121e-06 2.146512e-06 
0.2916664 0.44732 0.09496984 1 -2.622432e-06 4.715097e-06 
0.2916667 0.4650221 0.09952833 1 3.880388e-06 2.737001e-06 
0.2916667 0.4826507 0.104067 0.9944921 0.1044728 0.008421212 
0.2910275 0.5000001 0.1067317 0.7386762 0.6732849 -0.03232627 
0.2345478 0.5000002 -0.05250306 1.643189e-06 1 -4.282178e-06 
0.1732021 0.5000002 -0.225457 -2.948554e-06 1 9.316427e-07 
0.2916665 -0.1538021 -0.118824 0.9858064 -0.1678666 -0.002559441 
0.2916666 -0.1332699 -0.1134048 1 -4.740975e-06 -2.557858e-06 
0.2916666 -0.1128299 -0.1080102 1 6.141644e-06 2.76777e-07 
0.2916669 -0.09248106 -0.1026388 1 8.228888e-07 -6.235628e-06 
0.2916667 -0.07222338 -0.09729251 1 -4.10671e-07 -2.115698e-06 
0.2916669 -0.05205574 -0.09196935 1 -1.067228e-06 1.976447e-06 
0.2916666 -0.03197804 -0.0866711 1 -3.912803e-06 -6.413466e-07 
0.2916665 -0.01198921 -0.08139569 1 5.629234e-06 -2.00159e-06 
0.2916665 0.007911202 -0.07614367 1 2.128576e-06 1.976504e-06 
0.2916664 0.02772378 -0.07091469 1 -6.016116e-06 -7.481503e-09 
0.2916665 0.04744916 -0.06570839 1 -6.725022e-07 -3.786124e-06 
0.2916665 0.06708778 -0.06052535 1 -6.935858e-07 -2.360021e-07 
0.2916668 0.08664053 -0.05536387 1 4.060475e-06 3.14016e-06 
0.2916666 0.1061073 -0.05022673 1 -3.911505e-06 -2.604292e-07 
0.2916666 0.1254892 -0.04511132 1 -1.272597e-06 2.30851e-06 
0.2916667 0.1447868 -0.04001782 1 3.233347e-07 4.99339e-06 
0.2916666 0.1640003 -0.03494714 1 3.434905e-07 -1.690521e-06 
0.2916667 0.1831307 -0.02989765 1 2.656805e-06 1.300395e-06 
0.2916666 0.2021781 -0.02487123 1 -5.999044e-07 3.106733e-06 
0.2916666 0.2211433 -0.0198657 1 0 0 
0.2916665 0.2400267 -0.01488207 1 6.919561e-07 -3.486155e-06 
0.2916667 0.258829 -0.009919104 1 1.426146e-06 -1.951215e-06 
0.2916668 0.2775506 -0.004977805 1 3.215884e-06 -6.669985e-07 
0.2916668 0.296192 -5.77823e-05 1 1.019153e-06 3.499822e-06 
0.2916667 0.3147537 0.004840872 1 -1.708329e-06 3.95571e-06 
0.2916667 0.3332363 0.009718914 1 3.568587e-06 1.480619e-06 
0.2916667 0.3516402 0.01457628 1 -5.820178e-06 5.913441e-06 
0.2916665 0.3699659 0.01941246 1 2.423496e-06 2.520348e-06 
0.2916664 0.388214 0.02422821 1 1.339071e-06 -1.972527e-06 
0.2916665 0.4063851 0.02902435 1 -7.162964e-07 -2.811312e-07 
0.2916666 0.4244795 0.03380039 1 -2.761189e-06 3.750892e-06 
0.2916666 0.4424976 0.03855572 1 2.273609e-06 1.414622e-06 
0.2916666 0.4604401 0.04329118 1 1.698101e-06 -5.249834e-07 
0.2916666 0.4783072 0.04800673 0.9999478 0.01017597 -0.0009775955 
0.2916666 0.4960998 0.05270264 0.8535453 0.5208405 0.01362291 
0.2474751 0.5000002 -0.07262967 1.956644e-06 1 -2.093102e-07 
0.1864786 0.5000002 -0.2470441 0.07842433 0.9968154 -0.01444863 
0.2916667 -0.1466869 -0.177414 0.9991299 -0.03431136 0.02371074 
0.2916667 -0.1259285 -0.1717979 1 3.403934e-06 1.478288e-06 
0.2916667 -0.1052641 -0.1662069 1 -1.76775e-06 -2.2412e-06 
0.2916669 -0.08469328 -0.1606411 1 1.857354e-06 -3.269897e-06 
0.2916666 -0.0642156 -0.1551015 1 1.835801e-07 -4.980548e-07 
0.2916665 -0.0438301 -0.1495865 1 -2.635917e-06 5.977152e-07 
0.2916666 -0.02353611 -0.1440958 1 7.950073e-07 -2.542284e-06 
0.2916667 -0.003333102 -0.1386294 1 -3.405548e-07 -1.713322e-06 
0.2916665 0.0167792 -0.1331888 1 -9.155067e-08 -4.171759e-06 
0.2916665 0.03680181 -0.1277718 1 3.405065e-06 1.061063e-06 
0.2916667 0.0567354 -0.1223782 1 -1.682281e-06 -6.11379e-07 
0.2916664 0.07658007 -0.1170098 1 3.144604e-07 -1.097242e-07 
0.2916665 0.09633689 -0.1116645 1 3.519014e-06 5.436129e-06 
0.2916664 0.1160062 -0.1063433 1 -2.579218e-07 6.291622e-06 
0.2916665 0.1355887 -0.1010449 1 1.922387e-06 6.966246e-07 
0.2916665 0.1550848 -0.09577042 1 -6.533676e-07 3.014308e-06 
0.2916666 0.1744954 -0.09051853 1 -3.074438e-06 -1.635604e-07 
0.2916666 0.1938206 -0.08529024 1 -3.832055e-07 1.595523e-06 
0.2916668 0.2130615 -0.08008388 1 6.127792e-08 -1.729806e-06 
0.2916667 0.2322181 -0.07490132 1 -7.07033e-07 -2.113572e-06 
0.2916667 0.2512912 -0.06974132 1 -5.617307e-06 8.011289e-07 
0.2916667 0.2702813 -0.06460355 1 2.254603e-06 6.546522e-06 
0.2916665 0.289189 -0.05948852 1 -3.638715e-06 2.704222e-07 
0.2916666 0.3080149 -0.05439502 1 -8.543673e-07 -2.585155e-06 
0.2916666 0.3267595 -0.0493236 1 3.105079e-06 4.015858e-06 
0.2916665 0.3454232 -0.04427429 1 -4.8497e-06 1.2469e-06 
0.2916669 0.3640068 -0.03924544 1 2.940365e-06 2.004639e-06 
0.2916666 0.3825104 -0.03424032 1 3.191806e-06 -6.417831e-07 
0.2916665 0.4009346 -0.02925579 1 -2.071948e-06 -5.591545e-06 
0.2916667 0.4192803 -0.02429201 1 2.733238e-06 -4.522138e-07 
0.2916666 0.4375477 -0.01934995 1 -1.551242e-06 -2.588129e-06 
0.2916666 0.4557372 -0.01442879 1 5.222244e-07 3.597441e-07 
0.2916667 0.4738495 -0.009528174 1 -2.814747e-06 -1.829861e-06 
0.2916666 0.4918852 -0.004649166 0.8852119 0.4495412 -0.1196357 
0.2604879 0.5000001 -0.09288763 1.022843e-06 1 1.353792e-06 
0.1963676 0.4989497 -0.2791536 0.09596244 0.9926587 0.07362011 
0.2916666 -0.1604884 -0.2432569 0.845549 -0.5165427 0.1350208 
0.2916667 -0.1394014 -0.2374083 1 2.997587e-06 -2.34192e-06 
0.2916668 -0.1184115 -0.2315866 1 -2.322941e-06 -2.33695e-06 
0.2916667 -0.0975181 -0.2257925 1 1.496984e-06 -3.886365e-06 
0.2916669 -0.07672014 -0.2200237 1 -4.06825e-06 7.086076e-06 
0.2916668 -0.05601745 -0.2142822 1 1.204761e-06 3.239059e-07 
0.2916666 -0.03540926 -0.2085672 1 8.643914e-07 1.000066e-06 
0.2916665 -0.01489472 -0.202878 1 -3.230555e-06 3.945191e-06 
0.2916664 0.005526709 -0.1972147 1 -1.170326e-06 3.885732e-06 
0.2916665 0.02585577 -0.1915764 1 6.053224e-06 -6.559598e-06 
0.2916663 0.04609285 -0.1859642 1 6.535619e-07 -4.545272e-06 
0.2916665 0.06623892 -0.1803764 1 3.233562e-07 -1.88058e-06 
0.2916664 0.08629418 -0.1748144 1 2.056442e-06 1.864077e-06 
0.2916667 0.1062597 -0.1692766 1 -5.668977e-06 6.436583e-06 
0.2916665 0.1261355 -0.1637644 1 5.563411e-07 9.071549e-06 
0.2916665 0.1459226 -0.1582767 1 -4.108515e-06 4.449601e-06 
0.2916668 0.1656217 -0.1528125 1 -7.011877e-07 8.629439e-08 
0.2916667 0.185233 -0.1473738 1 -7.889721e-07 -2.411028e-07 
0.2916665 0.2047571 -0.1419594 1 1.392071e-06 -8.379498e-07 
0.2916667 0.2241951 -0.136568 1 -3.827218e-07 -5.027773e-06 
0.2916665 0.2435468 -0.1312015 1 2.151549e-06 -1.719827e-06 
0.2916665 0.2628135 -0.1258583 1 4.499923e-07 -4.663815e-07 
0.2916663 0.2819953 -0.1205387 1 -1.147138e-06 -4.189239e-06 
0.2916667 0.3010932 -0.1152409 1 -2.478616e-06 -2.378383e-06 
0.2916665 0.320107 -0.1099683 1 5.086917e-06 -1.301049e-06 
0.2916663 0.3390379 -0.1047185 1 -3.736527e-06 2.351267e-06 
0.2916668 0.3578865 -0.09948964 1 1.03151e-06 -5.017645e-08 
0.2916667 0.3766528 -0.09428511 1 4.400534e-06 -5.993927e-07 
0.2916665 0.3953377 -0.08910359 1 -2.477025e-07 -1.615895e-06 
0.2916665 0.4139415 -0.08394426 1 -7.551886e-07 -9.50436e-07 
0.2916665 0.4324652 -0.07880681 1 1.487055e-06 1.0851e-06 
0.2916669 0.4509089 -0.07369039 1 5.967113e-07 -1.975036e-06 
0.2916669 0.4692731 -0.06859738 1 4.357871e-06 -4.817936e-06 
0.2916664 0.4875583 -0.06352739 0.9619275 0.2727593 -0.01725668 
0.2735872 0.5000002 -0.1132779 0.0421179 0.9991067 -0.003458329 
0.2133059 0.5000001 -0.2906654 0.02041733 0.9785643 0.2049273 
0.2895713 -0.04918315 -0.2815864 0.971626 0.01013657 -0.2363052 
0.2903066 -0.02777764 -0.2733048 0.9477686 0.1769295 -0.2653879 
0.2916666 -0.006046513 -0.2630658 0.9474071 0.02603656 -0.3189702 
0.2916666 0.0145983 -0.2571963 0.9660137 0.004004539 -0.2584601 
0.2916666 0.0351486 -0.2513535 0.9938083 -0.008849501 -0.1107553 
0.2916666 0.05560485 -0.2455378 0.9998851 -0.002041297 -0.01502362 
0.2916664 0.07596771 -0.2397489 1 3.063433e-07 -3.238762e-06 
0.2916665 0.09623809 -0.2339856 1 -2.026173e-06 -2.181701e-06 
0.2916666 0.1164164 -0.2282484 1 1.517774e-06 1.508542e-06 
0.2916664 0.1365032 -0.222538 1 6.30568e-06 2.061766e-06 
0.2916666 0.1564993 -0.2168525 1 -4.689652e-06 1.400554e-06 
0.2916666 0.1764052 -0.2111931 1 -6.76716e-07 -1.720247e-06 
0.2916667 0.1962216 -0.2055585 1 4.873899e-06 -8.67324e-07 
0.2916665 0.2159488 -0.1999506 1 -3.830992e-06 2.120342e-06 
0.2916666 0.2355878 -0.1943668 1 8.961902e-07 2.395015e-06 
0.2916667 0.255139 -0.188808 1 -2.257995e-06 1.419376e-06 
0.2916663 0.2746028 -0.1832755 1 -2.192255e-06 4.914945e-06 
0.2916665 0.2939803 -0.1777655 1 2.652744e-07 4.10441e-06 
0.2916665 0.3132716 -0.172281 1 -3.691431e-06 5.573285e-06 
0.2916666 0.3324775 -0.1668201 1 -2.039342e-06 5.161704e-06 
0.2916665 0.3515985 -0.161384 1 4.816898e-06 4.485235e-06 
0.2916665 0.3706352 -0.1559719 1 1.618046e-06 1.757687e-06 
0.2916665 0.3895881 -0.1505834 1 -6.032828e-06 6.19951e-07 
0.2916667 0.4084577 -0.145218 1 -6.145448e-07 -4.114932e-07 
0.2916665 0.4272446 -0.1398774 1 2.321782e-06 -2.757077e-06 
0.2916667 0.4459496 -0.1345588 1 -3.704992e-06 -4.817795e-07 
0.2916667 0.4645727 -0.1292642 1 4.226955e-06 -1.959958e-08 
0.2916668 0.483115 -0.1239919 0.9940892 0.1077677 -0.0131505 
0.2867726 0.5000002 -0.1338051 0.4975335 0.8653452 -0.06031613 
0.2268588 0.5000002 -0.3127019 4.637835e-07 1 1.102433e-06 
0.2916667 0.2274047 -0.25931 0.9661879 0.001367907 -0.2578354 
0.2916666 0.2472489 -0.2535263 0.9906157 0.01243717 -0.1361095 
0.2916664 0.2670033 -0.2477694 0.9983221 0.0180559 -0.0550181 
0.2916667 0.2866687 -0.2420369 1 2.220832e-06 -8.552093e-06 
0.2916664 0.3062455 -0.2363317 1 1.102619e-06 -1.190378e-06 
0.2916662 0.3257343 -0.2306522 1 -2.448252e-06 2.080499e-06 
0.2916665 0.345136 -0.2249966 1 -2.490813e-06 8.670716e-07 
0.2916667 0.3644509 -0.2193664 1 -3.724559e-06 1.250398e-06 
0.2916667 0.3836795 -0.2137621 1 1.626972e-08 -1.799599e-06 
0.2916667 0.4028226 -0.2081825 1 4.862691e-06 -5.522632e-06 
0.2916666 0.4218806 -0.2026282 1 1.165699e-07 -1.053727e-06 
0.2916666 0.440854 -0.1970983 1 -2.906178e-06 5.067994e-06 
0.2916667 0.4597437 -0.1915926 1 1.925692e-06 1.17541e-06 
0.2916666 0.47855 -0.1861115 0.9993141 0.03309617 -0.01661349 
0.2916666 0.4972735 -0.1806542 0.831602 0.5553644 0.002934028 
0.2405055 0.5000001 -0.3348921 0.2812928 0.6645695 -0.6922585 
0.2906631 0.3966257 -0.2761159 0.9884841 0.006072346 -0.1512029 
0.2915803 0.4163332 -0.2674063 0.9963742 -0.004582074 -0.08495481 
0.2916666 0.4356167 -0.2613788 0.998919 0.001367864 -0.04646649 
0.2916667 0.4547805 -0.2556522 0.9998838 0.001722916 -0.01514313 
0.2916669 0.4738586 -0.2499513 0.9999954 -0.0004118926 -0.00301885 
0.2916665 0.4928513 -0.2442775 0.9046414 0.4144332 -0.0993426 
0.1793048 0.4777061 0.3325791 0.3495653 0.8021005 0.4841888 
0.1623932 0.4773228 0.3332957 0.02205337 0.872567 0.4879965 
0.1456482 0.4768562 0.3340573 -0.00298737 0.817036 0.576579 
0.1291135 0.4762518 0.3348953 0.001218141 0.8526807 0.522431 
0.1128418 0.4754431 0.3358478 0.01566405 0.7513112 0.6597621 
0.09707422 0.4741374 0.3370831 0.03314553 0.6015745 0.7981288 
0.1712848 0.4791666 0.3151046 0.03295411 0.9986145 0.04102655 
0.1541152 0.4791668 0.3156482 -0.003351529 0.9984832 0.0549563 
0.1370458 0.4791663 0.3161891 0.003041996 0.9978241 0.06586331 
0.1200748 0.4791662 0.3167266 -0.007765715 0.998365 0.05663199 
0.1032013 0.4791664 0.3172608 0.001086957 0.9975939 0.0693199 
0.08642516 0.4791664 0.3177921 0.01029201 0.9952774 0.09652457 
0.069745 0.4791665 0.3183203 0.0004691287 0.9938054 0.1111333 
0.05316044 0.4791664 0.3188456 -0.0004253118 0.9952534 0.09731596 
0.03667021 0.4791666 0.3193677 -2.826955e-05 0.9931107 0.1171808 
0.02027418 0.4791662 0.3198872 0.003028596 0.9878778 0.1552041 
0.003970404 0.4791667 0.3204032 -0.008659246 0.984448 0.175463 
-0.01224066 0.4791665 0.3209168 0.004219914 0.9909667 0.1340422 
-0.02836054 0.4791665 0.3214273 0.004708705 0.9845605 0.1749816 
-0.04438975 0.4791664 0.3219349 0.02297497 0.979157 0.2018011 
-0.06032922 0.4791666 0.3224396 -0.0003788511 0.985177 0.171541 
-0.07617948 0.4791665 0.3229417 0.009836768 0.975554 0.2195399 
-0.09194145 0.4791665 0.3234408 -0.008771323 0.9752952 0.2207312 
-0.1076156 0.4791664 0.3239374 0.006037087 0.979514 0.2012858 
-0.1232032 0.4791665 0.3244309 -0.007550068 0.9517784 0.3066938 
-0.1387046 0.4791666 0.3249218 0.004560777 0.9695683 0.2447787 
-0.1541205 0.4791669 0.3254098 -0.004374918 0.9695493 0.2448571 
-0.1694514 0.4791666 0.3258955 -0.0524665 0.9439796 0.3258064 
-0.1846985 0.4791666 0.3263783 -0.4125562 0.8479755 0.3327688 
-0.1874998 0.4617884 0.3367732 -0.6227111 0.112902 0.7742636 
0.1817901 0.4791663 0.2979608 0.487472 0.8728157 0.02374559 
0.1645853 0.4791666 0.2985545 4.353765e-07 1 -1.490556e-06 
0.1474807 0.4791665 0.2991449 -1.053113e-06 1 -3.336914e-06 
0.1304752 0.4791661 0.299732 -6.366449e-06 1 -4.928261e-06 
0.1135672 0.4791665 0.3003153 2.287127e-06 1 -2.22394e-06 
0.09675699 0.4791663 0.3008956 -1.502357e-07 1 3.931278e-06 
0.08004269 0.4791666 0.3014722 1.510198e-06 1 1.490676e-06 
0.06342417 0.4791667 0.3020457 5.097761e-06 1 -1.193665e-06 
0.04690076 0.4791664 0.3026161 -8.096282e-07 1 -1.484666e-06 
0.03047075 0.4791669 0.3031829 2.341606e-06 1 5.843067e-07 
0.01413472 0.4791662 0.3037471 6.935048e-07 1 4.757594e-07 
-0.002109671 0.4791665 0.3043075 3.030737e-06 1 -1.702971e-06 
-0.01826198 0.4791662 0.3048652 -1.14826e-06 1 -2.347168e-06 
-0.03432372 0.4791662 0.3054195 2.012577e-06 1 1.41206e-06 
-0.05029567 0.4791666 0.3059705 1.030448e-06 1 0.0001889452 
-0.06617796 0.4791664 0.3065187 -2.372811e-05 1 0.0001508428 
-0.08197165 0.4791663 0.3070639 -0.0001344722 0.9999987 0.001604952 
-0.09767791 0.4791666 0.3076058 5.497207e-06 1 8.695672e-05 
-0.113297 0.4791667 0.3081447 0.0007284452 0.9999958 0.002816479 
-0.1288295 0.4791667 0.3086808 0.0005294085 0.9999978 0.002039304 
-0.1442762 0.4791664 0.3092141 0.0009879674 0.9999749 0.007020064 
-0.1596384 0.4791666 0.3097441 5.708977e-05 0.9999909 0.004275017 
-0.174916 0.4791664 0.3102715 -0.1574857 0.9875183 0.002436858 
-0.1875001 0.4755196 0.3128504 -0.857162 0.5143014 0.02770452 
-0.1875001 0.4541709 0.325405 -0.9793772 0.0004183917 0.2020399 
-0.1875 0.432532 0.3381301 -0.7848756 -0.04033588 0.6183392 
0.1750608 0.4791664 0.2814516 0.2794725 0.9600525 0.0139457 
0.1579213 0.4791662 0.2820918 -7.529983e-07 1 -2.444525e-06 
0.140881 0.4791662 0.2827283 -6.447524e-06 1 -1.279848e-06 
0.1239388 0.4791662 0.283361 -1.838839e-06 1 -4.674584e-07 
0.107094 0.4791664 0.28399 2.264029e-06 1 -6.77153e-06 
0.09034563 0.4791668 0.2846152 4.427596e-06 1 -6.447517e-07 
0.07369372 0.4791664 0.2852373 -3.888861e-06 1 -3.225286e-07 
0.0571365 0.4791664 0.2858557 2.288647e-06 1 -1.65141e-06 
0.04067318 0.4791667 0.2864704 9.956744e-07 1 -2.033896e-06 
0.0243039 0.4791663 0.287082 1.580033e-06 1 9.441283e-08 
0.008026589 0.4791666 0.2876897 -1.578754e-06 1 -7.292948e-07 
-0.008158748 0.4791666 0.2882942 2.100232e-06 1 -1.367189e-06 
-0.02425304 0.4791666 0.2888952 1.100808e-06 1 1.017565e-06 
-0.0402571 0.4791667 0.2894929 2.121358e-06 1 -1.541703e-06 
-0.05617145 0.4791665 0.2900873 -5.550746e-06 1 -2.870802e-07 
-0.07199714 0.4791664 0.2906784 2.261187e-06 1 1.746153e-06 
-0.08773523 0.4791669 0.2912659 8.236011e-06 1 5.645561e-06 
-0.1033855 0.4791667 0.2918505 6.259399e-07 1 4.857968e-06 
-0.1189493 0.4791665 0.2924319 -6.489378e-06 1 3.116831e-06 
-0.1344271 0.4791662 0.2930101 -3.961576e-06 1 -7.501221e-07 
-0.1498206 0.4791669 0.2935846 5.255624e-06 1 -4.565722e-06 
-0.1651287 0.4791665 0.2941566 -5.773129e-07 1 3.520897e-06 
-0.1803534 0.4791664 0.2947251 -0.4580946 0.8874459 -0.05088376 
-0.1875002 0.4679583 0.3015275 -0.9389452 0.3410926 -0.04514129 
-0.1875001 0.4465395 0.3140168 -0.9988586 0.002237418 0.0477133 
-0.1874999 0.4248294 0.3266759 -0.9539157 -0.04101678 0.297258 
-0.1875 0.4028227 0.339508 -0.6114368 0.006917667 0.7912631 
0.1855418 0.4791665 0.2643396 0.4536111 0.8768958 0.159031 
0.1683673 0.4791664 0.2650296 0.1100724 0.9937341 -0.01940766 
0.1512921 0.4791664 0.2657155 -0.0003562421 0.9998467 0.01750949 
0.1343155 0.4791663 0.2663975 4.880734e-05 1 0.0003116483 
0.1174364 0.4791666 0.2670755 -0.0002581427 0.9989229 0.04640144 
0.1006549 0.4791659 0.26775 4.098727e-06 1 4.852081e-07 
